2.06482139883	1.60992529068	0.351038017279
2.06465149081	1.60980356365	0.345811799999
2.06448158279	1.60968183662	0.34058558272
2.06431167478	1.60956010959	0.33535936544
2.06414176676	1.60943838257	0.330133148161
2.06397185874	1.60931665554	0.324906930881
2.06380195073	1.60919492851	0.319680713602
2.06363204271	1.60907320149	0.314454496322
2.06346213469	1.60895147446	0.309228279042
2.06329222668	1.60882974743	0.304002061763
2.06312231866	1.60870802041	0.298775844483
2.06295241065	1.60858629338	0.293549627204
2.06278250263	1.60846456635	0.288323409924
2.06261259461	1.60834283932	0.283097192645
2.0624426866	1.6082211123	0.277870975365
2.06227277858	1.60809938527	0.272644758086
2.06210287056	1.60797765824	0.267418540806
2.06193296255	1.60785593122	0.262192323527
2.06176305453	1.60773420419	0.256966106247
2.06159314652	1.60761247716	0.251739888968
2.0614232385	1.60749075014	0.246513671688
2.06125333048	1.60736902311	0.241287454408
2.06108342247	1.60724729608	0.236061237129
2.06091351445	1.60712556905	0.230835019849
2.06074360643	1.60700384203	0.22560880257
2.06057369842	1.606882115	0.22038258529
2.0604037904	1.60676038797	0.215156368011
-0.0124506864544	0.00819215676709	0.0413913359081
-0.0132679336331	0.00756311473699	0.0406437949497
-0.0140850675397	0.00693415385824	0.0398997381361
-0.0149020881744	0.00630527413084	0.0391591654674
-0.015718995537	0.00567647555479	0.0384220769435
-0.0157410269431	0.00566069161696	0.0377444107696
-0.0165577643977	0.00503201476794	0.0370125484629
-0.0165797391678	0.00501627140578	0.0363366243615
-0.0166017139379	0.00500052804363	0.03566070026
-0.0174182248485	0.00437201349731	0.0349358062431
-0.0174401429826	0.00435631071083	0.034261624214
-0.0174620611167	0.00434060792435	0.033587442185
-0.0182783454833	0.00371225568073	0.0328695164578
-0.0183002069814	0.00369659346993	0.0321970765011
-0.0183220684795	0.00368093125912	0.0315246365445
-0.019138126302	0.00305274131821	0.030813679107
-0.0191599311641	0.00303711968308	0.0301429812228
-0.0191817360262	0.00302149804795	0.0294722833386
-0.0192035408883	0.00300587641281	0.0288015854544
-0.0192253457504	0.00299025477768	0.0281308875702
-0.0200410637569	0.00236230829083	0.0274303825673
-0.020062811983	0.00234672723137	0.0267614267555
-0.0200845602091	0.00233114617192	0.0260924709437
-0.0201063084352	0.00231556511246	0.0254235151319
-0.0209217432617	0.00168782150398	0.0247317204911
-0.0209434348518	0.0016722810202	0.0240645067518
-0.0209651264418	0.00165674053642	0.0233972930124
-0.0209868180319	0.00164120005264	0.0227300792731
-0.0218019696784	0.00101365932254	0.0220469949944
-0.0218236046325	0.000998159414438	0.0213815233275
-0.0218452395865	0.000982659506334	0.0207160516605
-0.022660164689	0.000355281078937	0.0200399356716
-0.0226817430071	0.000339821746508	0.0193762060771
-0.0227033213251	0.00032436241408	0.0187124764826
-0.0235180198835	-0.000302853710615	0.0180433287833
-0.0235395415656	-0.000318272467368	0.0173813412612
-0.0235610632477	-0.00033369122412	0.0167193537392
-0.0243755352621	-0.000960745046113	0.0160571743296
-0.0243970003081	-0.00097612322719	0.01539692888
-0.0244184653542	-0.000991501408267	0.0147366834303
-0.0244399304002	-0.00100687958934	0.0140764379807
-0.0252541192346	-0.00163373053296	0.0134229689333
-0.0252755276447	-0.00164906813836	0.0127644655561
-0.0252969360547	-0.00166440574376	0.0121059621788
-0.0261108983451	-0.00229109438467	0.0114594614211
-0.0261322501191	-0.0023063914144	0.0108027001163
-0.0261536018932	-0.00232168844412	0.0101459388115
-0.0261749536672	-0.00233698547385	0.00948917750674
-0.0269886327775	-0.00296347123638	0.00885138711117
-0.0270099279156	-0.00297872769043	0.0081963678788
-0.0270312230536	-0.00299398414448	0.00754134864643
-0.0278446756199	-0.00362030760431	0.00691052654056
-0.027865914122	-0.00363552348269	0.00625724938062
-0.027887152624	-0.00365073936106	0.00560397222068
-0.0287003786463	-0.00427690051819	0.00498011840452
-0.0287215605123	-0.00429207582089	0.004328583317
-0.0287427423783	-0.00430725112359	0.00367704822949
-0.0295557418566	-0.00493324997801	0.00306016270303
-0.0295768670866	-0.00494838470503	0.00241036968794
-0.0295979923167	-0.00496351943206	0.00176057667285
-0.0304107652509	-0.00558935598378	0.0011506594361
-0.0304318338449	-0.00560445013513	0.000502608493441
-0.0304529024389	-0.00561954428647	-0.000145442449222
-0.0312654488291	-0.00624521853549	-0.000748391396265
-0.0312864607872	-0.00626027211117	-0.0013947002665
-0.0313074727452	-0.00627532568684	-0.00204100913674
-0.0321197925914	-0.00690083763316	-0.00263698979407
-0.0321407479134	-0.00691585063315	-0.00328155659188
-0.0321617032354	-0.00693086363315	-0.00392612338969
-0.0329737965376	-0.00755621327676	-0.00451513575732
-0.0329946952236	-0.00757118570108	-0.00515796048271
-0.0330155939096	-0.0075861581254	-0.00580078520809
-0.0338274606677	-0.00821134546631	-0.00638282928602
-0.0338483027177	-0.00822627731496	-0.00702391193897
-0.0338691447677	-0.0082412091636	-0.00766499459193
-0.0338899868177	-0.00825614101225	-0.00830607724488
-0.0347015703958	-0.00888112547478	-0.00887941096068
-0.0347223558098	-0.00889601674775	-0.00951875154121
-0.0347431412238	-0.00891090802072	-0.0101580921217
-0.0347639266378	-0.00892579929369	-0.0107974327023
-0.0355752270359	-0.00955058087784	-0.0113620560559
-0.0355959558139	-0.00956543157514	-0.011999654564
-0.0356166845919	-0.00958028227243	-0.0126372530721
-0.0356374133699	-0.00959513296972	-0.0132748515802
-0.0356581421479	-0.00960998366702	-0.0139124500883
-0.0356788709259	-0.00962483436431	-0.0145500485964
-0.0364897748719	-0.0102493319187	-0.0151024774431
-0.0365104470139	-0.0102641420404	-0.0157383338788
-0.0365311191559	-0.010278952162	-0.0163741903145
-0.0365517912979	-0.0102937622836	-0.0170100467501
-0.0365724634398	-0.0103085724052	-0.0176459031858
-0.0365931355818	-0.0103233825268	-0.0182817596215
-0.0366138077238	-0.0103381926484	-0.0189176160572
-0.0366344798658	-0.0103530027701	-0.0195534724929
-0.0366551520078	-0.0103678128917	-0.0201893289285
-0.0366758241498	-0.0103826230133	-0.0208251853642
-0.0366964962917	-0.0103974331349	-0.0214610417999
-0.0367171684337	-0.0104122432565	-0.0220968982356
-0.0367378405757	-0.0104270533781	-0.0227327546712
-0.0367585127177	-0.0104418634998	-0.0233686111069
-0.0367791848597	-0.0104566736214	-0.0240044675426
-0.0367998570017	-0.010471483743	-0.0246403239783
-0.0368205291436	-0.0104862938646	-0.0252761804139
-0.0368412012856	-0.0105011039862	-0.0259120368496
-0.0368618734276	-0.0105159141079	-0.0265478932853
-0.0368825455696	-0.0105307242295	-0.027183749721
-0.0361141752636	-0.00993669900747	-0.0279396172666
-0.0361349040416	-0.00995154970476	-0.0285772157747
-0.0361556328196	-0.00996640040206	-0.0292148142828
-0.0361763615976	-0.00998125109935	-0.0298524127909
-0.0361970903756	-0.00999610179664	-0.030490011299
-0.0362178191536	-0.0100109524939	-0.0311276098071
-0.0362385479316	-0.0100258031912	-0.0317652083152
-0.0354706307136	-0.00943210257463	-0.0325350124403
-0.0354914161276	-0.0094469938476	-0.0331743530208
-0.0355122015416	-0.00946188512057	-0.0338136936013
-0.0355329869556	-0.00947677639354	-0.0344530341819
-0.0347653529177	-0.00888327865532	-0.0352315486691
-0.0347861949677	-0.00889821050397	-0.035872631322
-0.0348070370177	-0.00891314235261	-0.036513713975
-0.0340396295238	-0.0083198069171	-0.0372991967519
-0.0340605282098	-0.00833477934142	-0.0379420214772
-0.033293290624	-0.00774156563293	-0.0387327304714
-0.033314245946	-0.00775657863293	-0.0393772972692
-0.0325471782681	-0.00716348665146	-0.0401732324807
-0.0317802238623	-0.00657047582136	-0.040972651837
-0.0310133827285	-0.0059775461426	-0.0417755553381
-0.0302466548666	-0.00538469761519	-0.0425819429841
-0.028692243821	-0.00418398756038	-0.0435501514783
2.03831574828	1.59093587446	-0.464251878329
2.03814584027	1.59081414744	-0.469478095608
2.03797593225	1.59069242041	-0.474704312888
2.03780602423	1.59057069338	-0.479930530168
2.03763611622	1.59044896636	-0.485156747447
2.0374662082	1.59032723933	-0.490382964727
2.03729630018	1.5902055123	-0.495609182006
2.03712639217	1.59008378528	-0.500835399286
2.03695648415	1.58996205825	-0.506061616565
2.03678657614	1.58984033122	-0.511287833845
2.03661666812	1.58971860419	-0.516514051124
2.0364467601	1.58959687717	-0.521740268404
2.03627685209	1.58947515014	-0.526966485683
2.03610694407	1.58935342311	-0.532192702963
2.03593703605	1.58923169609	-0.537418920242
2.03576712804	1.58910996906	-0.542645137522
2.03559722002	1.58898824203	-0.547871354801
2.035427312	1.58886651501	-0.553097572081
2.03525740399	1.58874478798	-0.558323789361
2.03508749597	1.58862306095	-0.56355000664
2.03491758796	1.58850133392	-0.56877622392
2.03474767994	1.5883796069	-0.574002441199
2.03457777192	1.58825787987	-0.579228658479
2.03440786391	1.58813615284	-0.584454875758
2.03423795589	1.58801442582	-0.589681093038
2.03406804787	1.58789269879	-0.594907310317
2.03389813986	1.58777097176	-0.600133527597
2.03372823184	1.58764924474	-0.605359744876
2.03355832383	1.58752751771	-0.610585962156
2.03338841581	1.58740579068	-0.615812179435
2.03321850779	1.58728406365	-0.621038396715
2.03304859978	1.58716233663	-0.626264613995
2.03287869176	1.5870406096	-0.631490831274
2.03270878374	1.58691888257	-0.636717048554
2.03253887573	1.58679715555	-0.641943265833
2.03236896771	1.58667542852	-0.647169483113
2.0321990597	1.58655370149	-0.652395700392
2.03202915168	1.58643197447	-0.657621917672
2.03185924366	1.58631024744	-0.662848134951
2.03168933565	1.58618852041	-0.668074352231
2.03151942763	1.58606679338	-0.67330056951
2.03134951961	1.58594506636	-0.67852678679
2.0311796116	1.58582333933	-0.683753004069
2.03100970358	1.5857016123	-0.688979221349
2.03083979556	1.58557988528	-0.694205438629
2.03066988755	1.58545815825	-0.699431655908
2.03049997953	1.58533643122	-0.704657873188
2.03033007152	1.5852147042	-0.709884090467
2.0301601635	1.58509297717	-0.715110307747
2.02999025548	1.58497125014	-0.720336525026
2.02982034747	1.58484952311	-0.725562742306
2.02965043945	1.58472779609	-0.730788959585
2.02948053143	1.58460606906	-0.736015176865
2.02931062342	1.58448434203	-0.741241394144
2.0291407154	1.58436261501	-0.746467611424
2.02897080739	1.58424088798	-0.751693828703
2.02880089937	1.58411916095	-0.756920045983
2.02863099135	1.58399743393	-0.762146263262
2.02846108334	1.5838757069	-0.767372480542
2.02829117532	1.58375397987	-0.772598697822
2.0281212673	1.58363225284	-0.777824915101
2.02795135929	1.58351052582	-0.783051132381
2.02778145127	1.58338879879	-0.78827734966
2.02761154326	1.58326707176	-0.79350356694
2.02744163524	1.58314534474	-0.798729784219
2.02727172722	1.58302361771	-0.803956001499
2.02710181921	1.58290189068	-0.809182218778
2.02693191119	1.58278016366	-0.814408436058
2.02676200317	1.58265843663	-0.819634653337
2.02659209516	1.5825367096	-0.824860870617
2.07212140366	1.60870802393	0.48169344927
2.07195149565	1.6085862969	0.476467231991
2.07178158763	1.60846456988	0.471241014711
2.07161167961	1.60834284285	0.466014797432
2.0714417716	1.60822111582	0.460788580152
2.07127186358	1.6080993888	0.455562362873
2.07110195557	1.60797766177	0.450336145593
2.07093204755	1.60785593474	0.445109928314
2.07076213953	1.60773420771	0.439883711034
2.07059223152	1.60761248069	0.434657493755
2.0704223235	1.60749075366	0.429431276475
2.07025241548	1.60736902663	0.424205059195
2.07008250747	1.60724729961	0.418978841916
2.06991259945	1.60712557258	0.413752624636
2.06974269143	1.60700384555	0.408526407357
2.06957278342	1.60688211853	0.403300190077
2.0694028754	1.6067603915	0.398073972798
2.06923296739	1.60663866447	0.392847755518
2.06906305937	1.60651693744	0.387621538239
2.06889315135	1.60639521042	0.382395320959
2.06872324334	1.60627348339	0.37716910368
2.06855333532	1.60615175636	0.3719428864
2.0683834273	1.60603002934	0.366716669121
2.06821351929	1.60590830231	0.361490451841
2.06804361127	1.60578657528	0.356264234561
2.06787370326	1.60566484826	0.351038017282
2.06770379524	1.60554312123	0.345811800002
2.06753388722	1.6054213942	0.340585582723
2.06736397921	1.60529966717	0.335359365443
2.06719407119	1.60517794015	0.330133148164
2.06702416317	1.60505621312	0.324906930884
2.06685425516	1.60493448609	0.319680713605
2.06668434714	1.60481275907	0.314454496325
2.06651443912	1.60469103204	0.309228279046
2.06634453111	1.60456930501	0.304002061766
2.06617462309	1.60444757799	0.298775844487
2.06600471508	1.60432585096	0.293549627207
2.06583480706	1.60420412393	0.288323409928
2.06566489904	1.60408239691	0.283097192648
2.06549499103	1.60396066988	0.277870975368
2.06532508301	1.60383894285	0.272644758089
2.06515517499	1.60371721582	0.267418540809
2.06498526698	1.6035954888	0.26219232353
2.06481535896	1.60347376177	0.25696610625
2.06464545095	1.60335203474	0.251739888971
2.06447554293	1.60323030772	0.246513671691
2.06430563491	1.60310858069	0.241287454412
2.0641357269	1.60298685366	0.236061237132
2.06396581888	1.60286512664	0.230835019853
2.06379591086	1.60274339961	0.225608802573
2.06362600285	1.60262167258	0.220382585294
-0.0120285766239	0.0076499850507	0.0420759703722
-0.0128468978734	0.00702232259239	0.0413266873413
-0.0136651058508	0.00639474128544	0.0405808884553
-0.0144832005563	0.00576724112984	0.0398385737141
-0.0153011819897	0.00513982212559	0.0390997431178
-0.0153232133959	0.00512403818776	0.0384220769439
-0.0161410249213	0.00449674091054	0.0376884725648
-0.0161629996914	0.00448099754838	0.0370125484634
-0.0169806413088	0.00385382199819	0.0362841703016
-0.0170025594429	0.0038381192117	0.0356099882725
-0.017024477577	0.00382241642522	0.0349358062435
-0.0178418926504	0.00319540317773	0.0342143963714
-0.0178637541485	0.00317974096692	0.0335419564148
-0.0178856156466	0.00316407875612	0.0328695164582
-0.018702804176	0.00253722781133	0.0321550748758
-0.0187246090381	0.0025216061762	0.0314843769916
-0.0187464139002	0.00250598454106	0.0308136791074
-0.0187682187623	0.00249036290593	0.0301429812232
-0.0195851241116	0.00186371483952	0.029437250003
-0.0196068723377	0.00184813378007	0.0287682941912
-0.0196286205638	0.00183255272061	0.0280993383794
-0.0196503687899	0.00181697166116	0.0274303825677
-0.0196721170159	0.0018013906017	0.0267614267559
-0.0204886825493	0.00117498598934	0.0260661479702
-0.0205103741393	0.00115944550557	0.0253989342309
-0.0205320657294	0.00114390502179	0.0247317204915
-0.0205537573195	0.00112836453801	0.0240645067522
-0.0213700396728	0.000502162804027	0.0233779383287
-0.0213916746269	0.000486662895923	0.0227124666617
-0.0214133095809	0.000471162987819	0.0220469949948
-0.0222293653902	-0.000154876443457	0.021367394861
-0.0222509437083	-0.000170335775885	0.0207036652665
-0.0222725220263	-0.000185795108313	0.020039935672
-0.0222941003444	-0.000201254440742	0.0193762060775
-0.0231098729736	-0.000827090993639	0.0187053163058
-0.0231313946557	-0.000842509750392	0.0180433287837
-0.0231529163378	-0.000857928507145	0.0173813412617
-0.023968462423	-0.00148360275734	0.0167174197797
-0.023989927469	-0.00149898093842	0.01605717433
-0.0240113925151	-0.00151435911949	0.0153969288804
-0.0248267120563	-0.00213987106699	0.0147399756881
-0.0248481204664	-0.00215520867239	0.0140814723109
-0.0248695288764	-0.00217054627779	0.0134229689337
-0.0248909372865	-0.00218588388319	0.0127644655565
-0.0257059736476	-0.0028111929523	0.0121162227263
-0.0257273254217	-0.00282648998203	0.0114594614215
-0.0257486771957	-0.00284178701176	0.0108027001167
-0.0257700289698	-0.00285708404148	0.0101459388119
-0.0265847821509	-0.00348219023222	0.00950640634394
-0.0266060772889	-0.00349744668627	0.00885138711157
-0.026627372427	-0.00351270314032	0.0081963678792
-0.0274418990641	-0.00413764702835	0.00756380370091
-0.0274631375661	-0.00415286290672	0.00691052654096
-0.0274843760682	-0.0041680787851	0.00625724938102
-0.0282986761613	-0.00479286037043	0.00563165349243
-0.0283198580273	-0.00480803567313	0.00498011840492
-0.0283410398933	-0.00482321097583	0.0043285833174
-0.0291551134424	-0.00544783025845	0.00370995571852
-0.0291762386724	-0.00546296498548	0.00306016270343
-0.0291973639025	-0.0054780997125	0.00241036968834
-0.0300112109075	-0.00610255669242	0.00179871037916
-0.0300322795015	-0.00611765084377	0.0011506594365
-0.0300533480956	-0.00613274499512	0.000502608493839
-0.0308669685566	-0.00675703967234	-0.000102082525632
-0.0308879805146	-0.00677209324801	-0.000748391395868
-0.0309089924726	-0.00678714682369	-0.0013947002661
-0.0317223863896	-0.00741127919821	-0.00199242299587
-0.0317433417116	-0.0074262921982	-0.00263698979368
-0.0317642970336	-0.0074413051982	-0.00328155659149
-0.0325774644066	-0.00806527527001	-0.00387231103155
-0.0325983630926	-0.00808024769433	-0.00451513575693
-0.0326192617786	-0.00809522011865	-0.00515796048231
-0.0334322026076	-0.00871902788777	-0.00574174663266
-0.0334530446576	-0.00873395973641	-0.00638282928562
-0.0334738867076	-0.00874889158506	-0.00702391193858
-0.0334947287576	-0.0087638234337	-0.00766499459153
-0.0343073864065	-0.00938742832444	-0.00824007037975
-0.0343281718205	-0.00940231959741	-0.00887941096028
-0.0343489572345	-0.00941721087038	-0.00951875154081
-0.0343697426485	-0.00943210214335	-0.0101580921213
-0.0351821171174	-0.0100555041557	-0.0107244575474
-0.0352028458954	-0.010070354853	-0.0113620560555
-0.0352235746734	-0.0100852055503	-0.0119996545636
-0.0352443034514	-0.0101000562476	-0.0126372530717
-0.0352650322294	-0.0101149069449	-0.0132748515798
-0.0360770668823	-0.0107380655032	-0.0138307645714
-0.0360977390242	-0.0107528756248	-0.0144666210071
-0.0361184111662	-0.0107676857464	-0.0151024774427
-0.0361390833082	-0.010782495868	-0.0157383338784
-0.0361597554502	-0.0107973059897	-0.0163741903141
-0.0361804275922	-0.0108121161113	-0.0170100467498
-0.0362010997342	-0.0108269262329	-0.0176459031854
-0.0362217718761	-0.0108417363545	-0.0182817596211
-0.0362424440181	-0.0108565464761	-0.0189176160568
-0.0362631161601	-0.0108713565977	-0.0195534724925
-0.0362837883021	-0.0108861667194	-0.0201893289281
-0.0363044604441	-0.010900976841	-0.0208251853638
-0.0363251325861	-0.0109157869626	-0.0214610417995
-0.036345804728	-0.0109305970842	-0.0220968982352
-0.03636647687	-0.0109454072058	-0.0227327546708
-0.036387149012	-0.0109602173274	-0.0233686111065
-0.036407821154	-0.0109750274491	-0.0240044675422
-0.036428493296	-0.0109898375707	-0.0246403239779
-0.036449165438	-0.0110046476923	-0.0252761804136
-0.0364698375799	-0.0110194578139	-0.0259120368492
-0.0364905097219	-0.0110342679355	-0.0265478932849
-0.0365111818639	-0.0110490780572	-0.0271837497206
-0.0365318540059	-0.0110638881788	-0.0278196061563
-0.0365525261479	-0.0110786983004	-0.0284554625919
-0.0357832516791	-0.0104861743772	-0.0292148142824
-0.0358039804571	-0.0105010250745	-0.0298524127905
-0.0358247092351	-0.0105158757718	-0.0304900112986
-0.0358454380131	-0.0105307264691	-0.0311276098067
-0.0358661667911	-0.0105455771664	-0.0317652083148
-0.0358868955691	-0.0105604278637	-0.0324028068229
-0.0351180175523	-0.00996818797023	-0.0331743530204
-0.0351388029663	-0.0099830792432	-0.033813693601
-0.0351595883803	-0.00999797051617	-0.0344530341815
-0.0351803737943	-0.0100128617891	-0.035092374762
-0.0344117789576	-0.00942082477407	-0.0358726313216
-0.0344326210076	-0.00943575662271	-0.0365137139746
-0.0336641960789	-0.00884384133467	-0.0372991967515
-0.0336850947649	-0.00885881375899	-0.0379420214768
-0.0337059934509	-0.00887378618331	-0.0385848462022
-0.0329377950662	-0.00828203319797	-0.0393772972688
-0.0321697099536	-0.00769036136398	-0.0401732324803
-0.0321907219116	-0.00770541493966	-0.0408195413505
-0.0314228067069	-0.00711386483269	-0.0416207027792
-0.0306550047743	-0.00652239587708	-0.0424253483528
-0.029098502223	-0.00532448554155	-0.0433918147746
2.04136805271	1.58667543204	-0.464251878326
2.0411981447	1.58655370502	-0.469478095605
2.04102823668	1.58643197799	-0.474704312885
2.04085832866	1.58631025096	-0.479930530164
2.04068842065	1.58618852394	-0.485156747444
2.04051851263	1.58606679691	-0.490382964723
2.04034860461	1.58594506988	-0.495609182003
2.0401786966	1.58582334286	-0.500835399282
2.04000878858	1.58570161583	-0.506061616562
2.03983888057	1.5855798888	-0.511287833842
2.03966897255	1.58545816177	-0.516514051121
2.03949906453	1.58533643475	-0.521740268401
2.03932915652	1.58521470772	-0.52696648568
2.0391592485	1.58509298069	-0.53219270296
2.03898934048	1.58497125367	-0.537418920239
2.03881943247	1.58484952664	-0.542645137519
2.03864952445	1.58472779961	-0.547871354798
2.03847961644	1.58460607259	-0.553097572078
2.03830970842	1.58448434556	-0.558323789357
2.0381398004	1.58436261853	-0.563550006637
2.03796989239	1.5842408915	-0.568776223916
2.03779998437	1.58411916448	-0.574002441196
2.03763007635	1.58399743745	-0.579228658475
2.03746016834	1.58387571042	-0.584454875755
2.03729026032	1.5837539834	-0.589681093035
2.0371203523	1.58363225637	-0.594907310314
2.03695044429	1.58351052934	-0.600133527594
2.03678053627	1.58338880232	-0.605359744873
2.03661062826	1.58326707529	-0.610585962153
2.03644072024	1.58314534826	-0.615812179432
2.03627081222	1.58302362123	-0.621038396712
2.03610090421	1.58290189421	-0.626264613991
2.03593099619	1.58278016718	-0.631490831271
2.03576108817	1.58265844015	-0.63671704855
2.03559118016	1.58253671313	-0.64194326583
2.03542127214	1.5824149861	-0.647169483109
2.03525136413	1.58229325907	-0.652395700389
2.03508145611	1.58217153205	-0.657621917669
2.03491154809	1.58204980502	-0.662848134948
2.03474164008	1.58192807799	-0.668074352228
2.03457173206	1.58180635097	-0.673300569507
2.03440182404	1.58168462394	-0.678526786787
2.03423191603	1.58156289691	-0.683753004066
2.03406200801	1.58144116988	-0.688979221346
2.0338921	1.58131944286	-0.694205438625
2.03372219198	1.58119771583	-0.699431655905
2.03355228396	1.5810759888	-0.704657873184
2.03338237595	1.58095426178	-0.709884090464
2.03321246793	1.58083253475	-0.715110307743
2.03304255991	1.58071080772	-0.720336525023
2.0328726519	1.5805890807	-0.725562742303
2.03270274388	1.58046735367	-0.730788959582
2.03253283586	1.58034562664	-0.736015176862
2.03236292785	1.58022389961	-0.741241394141
2.03219301983	1.58010217259	-0.746467611421
2.03202311182	1.57998044556	-0.7516938287
2.0318532038	1.57985871853	-0.75692004598
2.03168329578	1.57973699151	-0.762146263259
2.03151338777	1.57961526448	-0.767372480539
2.03134347975	1.57949353745	-0.772598697818
2.03117357173	1.57937181043	-0.777824915098
2.03100366372	1.5792500834	-0.783051132377
2.0308337557	1.57912835637	-0.788277349657
2.03066384769	1.57900662934	-0.793503566936
2.03049393967	1.57888490232	-0.798729784216
2.03032403165	1.57876317529	-0.803956001496
2.03015412364	1.57864144826	-0.809182218775
2.02998421562	1.57851972124	-0.814408436055
2.0298143076	1.57839799421	-0.819634653334
2.02964439959	1.57827626718	-0.824860870614
2.07517370809	1.60444758151	0.481693449274
2.07500380008	1.60432585448	0.476467231994
2.07483389206	1.60420412746	0.471241014715
2.07466398404	1.60408240043	0.466014797435
2.07449407603	1.6039606734	0.460788580155
2.07432416801	1.60383894638	0.455562362876
2.07415426	1.60371721935	0.450336145596
2.07398435198	1.60359549232	0.445109928317
2.07381444396	1.6034737653	0.439883711037
2.07364453595	1.60335203827	0.434657493758
2.07347462793	1.60323031124	0.429431276478
2.07330471991	1.60310858421	0.424205059199
2.0731348119	1.60298685719	0.418978841919
2.07296490388	1.60286513016	0.41375262464
2.07279499586	1.60274340313	0.40852640736
2.07262508785	1.60262167611	0.403300190081
2.07245517983	1.60249994908	0.398073972801
2.07228527182	1.60237822205	0.392847755521
2.0721153638	1.60225649503	0.387621538242
2.07194545578	1.602134768	0.382395320962
2.07177554777	1.60201304097	0.377169103683
2.07160563975	1.60189131394	0.371942886403
2.07143573173	1.60176958692	0.366716669124
2.07126582372	1.60164785989	0.361490451844
2.0710959157	1.60152613286	0.356264234565
2.07092600769	1.60140440584	0.351038017285
2.07075609967	1.60128267881	0.345811800006
2.07058619165	1.60116095178	0.340585582726
2.07041628364	1.60103922476	0.335359365447
2.07024637562	1.60091749773	0.330133148167
2.0700764676	1.6007957707	0.324906930887
2.06990655959	1.60067404367	0.319680713608
2.06973665157	1.60055231665	0.314454496328
2.06956674356	1.60043058962	0.309228279049
2.06939683554	1.60030886259	0.304002061769
2.06922692752	1.60018713557	0.29877584449
2.06905701951	1.60006540854	0.29354962721
2.06888711149	1.59994368151	0.288323409931
2.06871720347	1.59982195449	0.283097192651
2.06854729546	1.59970022746	0.277870975372
2.06837738744	1.59957850043	0.272644758092
2.06820747942	1.5994567734	0.267418540813
2.06803757141	1.59933504638	0.262192323533
2.06786766339	1.59921331935	0.256966106254
2.06769775538	1.59909159232	0.251739888974
2.06752784736	1.5989698653	0.246513671694
2.06735793934	1.59884813827	0.241287454415
2.06718803133	1.59872641124	0.236061237135
2.06701812331	1.59860468422	0.230835019856
2.06684821529	1.59848295719	0.225608802576
-0.0116064667934	0.00710781333431	0.0427606048362
-0.0124258621137	0.0064815304478	0.0420095797329
-0.013245144162	0.00585532871265	0.0412620387745
-0.0140643129383	0.00522920812884	0.0405179819609
-0.0148833684425	0.00460316869639	0.0397774092921
-0.0157023106748	0.00397721041529	0.0390403207682
-0.0157242854449	0.00396146705313	0.0383643966668
-0.0165430577691	0.00333563049906	0.0376325343601
-0.0165649759032	0.00331992771258	0.0369583523311
-0.0165868940373	0.0033042249261	0.036284170302
-0.0174054398175	0.00267855067473	0.0355592762851
-0.0174273013156	0.00266288846392	0.0348868363285
-0.0174491628137	0.00264722625311	0.0342143963719
-0.0182674820499	0.00202171430445	0.0334964706447
-0.018289286912	0.00200609266932	0.0328257727605
-0.0183110917741	0.00199047103418	0.0321550748762
-0.0183328966362	0.00197484939905	0.031484376992
-0.0191509326924	0.00134954032876	0.030775161627
-0.0191726809184	0.00133395926931	0.0301062058152
-0.0191944291445	0.00131837820985	0.0294372500034
-0.0192161773706	0.0013027971504	0.0287682941916
-0.0192379255967	0.00128721609094	0.0280993383799
-0.0200556218368	0.000662150474708	0.0274005754494
-0.0200773134269	0.000646609990928	0.02673336171
-0.020099005017	0.000631069507148	0.0260661479706
-0.0201206966071	0.000615529023369	0.0253989342313
-0.0209381096672	-9.33371448809e-06	0.0247088816629
-0.0209597446213	-2.4833622592e-05	0.024043409996
-0.0209813795753	-4.0333530696e-05	0.0233779383291
-0.0210030145294	-5.58334388e-05	0.0227124666621
-0.0218201444095	-0.000680493298279	0.0220311244559
-0.0218417227276	-0.000695952630707	0.0213673948614
-0.0218633010456	-0.000711411963135	0.0207036652669
-0.0218848793637	-0.000726871295563	0.0200399356724
-0.0227017260637	-0.00135132827666	0.0193673038283
-0.0227232477458	-0.00136674703342	0.0187053163062
-0.0227447694279	-0.00138216579017	0.0180433287841
-0.0235613895839	-0.00200646046857	0.0173776652297
-0.02358285463	-0.00202183864964	0.0167174197801
-0.023604319676	-0.00203721683072	0.0160571743304
-0.024420713288	-0.00266134920642	0.0153984790657
-0.0244421216981	-0.00267668681182	0.0147399756885
-0.0244635301081	-0.00269202441722	0.0140814723113
-0.0244849385182	-0.00270736202262	0.0134229689341
-0.0253010489502	-0.00333129151994	0.0127729840315
-0.0253224007242	-0.00334658854966	0.0121162227267
-0.0253437524983	-0.00336188557939	0.0114594614219
-0.0261596363862	-0.003985652774	0.0108164448091
-0.0261809315243	-0.00400090922805	0.0101614255767
-0.0262022266623	-0.0040161656821	0.00950640634434
-0.0262235218004	-0.00403142213615	0.00885138711197
-0.0270391225083	-0.00465498645239	0.00821708086125
-0.0270603610103	-0.00467020233076	0.00756380370131
-0.0270815995124	-0.00468541820914	0.00691052654137
-0.0278969736763	-0.00530882022267	0.00628318858035
-0.0279181555423	-0.00532399552537	0.00563165349283
-0.0279393374083	-0.00533917082807	0.00498011840532
-0.0287544850282	-0.0059624105389	0.00435974873401
-0.0287756102583	-0.00597754526592	0.00370995571892
-0.0287967354883	-0.00599267999294	0.00306016270383
-0.0296116565641	-0.00661575740107	0.00244676132223
-0.0296327251582	-0.00663085155242	0.00179871037956
-0.0296537937522	-0.00664594570376	0.0011506594369
-0.030468488284	-0.00726886080919	0.000544226345002
-0.030489500242	-0.00728391438486	-0.000102082525234
-0.0305105122001	-0.00729896796053	-0.00074839139547
-0.0313249801879	-0.00792172076326	-0.00134785619766
-0.0313459355099	-0.00793673376325	-0.00199242299547
-0.0313668908319	-0.00795174676325	-0.00263698979328
-0.0321811322757	-0.00857433726327	-0.00322948630577
-0.0322020309617	-0.00858930968759	-0.00387231103115
-0.0322229296477	-0.00860428211191	-0.00451513575653
-0.0322438283337	-0.00861925453623	-0.00515796048192
-0.0330577865975	-0.00924164215787	-0.00574174663227
-0.0330786286475	-0.00925657400651	-0.00638282928523
-0.0330994706975	-0.00927150585516	-0.00702391193818
-0.0339132024172	-0.0098937311741	-0.00760072979883
-0.0339339878312	-0.00990862244707	-0.00824007037936
-0.0339547732452	-0.00992351372004	-0.00887941095989
-0.0339755586592	-0.009938404993	-0.00951875154042
-0.034789007199	-0.0105604274336	-0.0100868590389
-0.0348097359769	-0.0105752781309	-0.010724457547
-0.0348304647549	-0.0105901288282	-0.0113620560551
-0.0348511935329	-0.0106049795254	-0.0119996545632
-0.0348719223109	-0.0106198302227	-0.0126372530713
-0.0356850310346	-0.0112416092092	-0.0131949081353
-0.0357057031766	-0.0112564193309	-0.013830764571
-0.0357263753186	-0.0112712294525	-0.0144666210067
-0.0357470474605	-0.0112860395741	-0.0151024774423
-0.0357677196025	-0.0113008496957	-0.015738333878
-0.0357883917445	-0.0113156598173	-0.0163741903137
-0.0358090638865	-0.011330469939	-0.0170100467494
-0.0358297360285	-0.0113452800606	-0.017645903185
-0.0358504081705	-0.0113600901822	-0.0182817596207
-0.0358710803124	-0.0113749003038	-0.0189176160564
-0.0366835660401	-0.0119962329579	-0.0194561083237
-0.0367041815461	-0.0120110025038	-0.0200902226869
-0.036724797052	-0.0120257720498	-0.0207243370502
-0.036745412558	-0.0120405415957	-0.0213584514134
-0.036766028064	-0.0120553111416	-0.0219925657767
-0.0359951131643	-0.0114637610335	-0.0227327546705
-0.0360157853063	-0.0114785711551	-0.0233686111061
-0.0360364574483	-0.0114933812767	-0.0240044675418
-0.0360571295903	-0.0115081913984	-0.0246403239775
-0.0360778017323	-0.01152300152	-0.0252761804132
-0.0360984738743	-0.0115378116416	-0.0259120368488
-0.0361191460162	-0.0115526217632	-0.0265478932845
-0.0361398181582	-0.0115674318848	-0.0271837497202
-0.0361604903002	-0.0115822420065	-0.0278196061559
-0.0361811624422	-0.0115970521281	-0.0284554625916
-0.0362018345842	-0.0116118622497	-0.0290913190272
-0.0354315993166	-0.0110207990497	-0.0298524127901
-0.0354523280946	-0.011035649747	-0.0304900112982
-0.0354730568726	-0.0110505004442	-0.0311276098063
-0.0354937856506	-0.0110653511415	-0.0317652083145
-0.0355145144286	-0.0110802018388	-0.0324028068226
-0.0355352432065	-0.0110950525361	-0.0330404053307
-0.034765404391	-0.0105042733658	-0.0338136936006
-0.034786189805	-0.0105191646388	-0.0344530341811
-0.034806975219	-0.0105340559118	-0.0350923747616
-0.0340373629475	-0.00994343904417	-0.0358726313212
-0.0340582049975	-0.00995837089281	-0.0365137139742
-0.0340790470475	-0.00997330274146	-0.0371547966271
-0.03330966132	-0.00938284817656	-0.0379420214764
-0.033330560006	-0.00939782060088	-0.0385848462018
-0.0325613441865	-0.00880748776302	-0.0393772972684
-0.0325822995085	-0.00882250076301	-0.0400218640662
-0.0318132535971	-0.00823228965217	-0.0408195413501
-0.0310443209576	-0.00764215969269	-0.0416207027788
-0.0302755015902	-0.00705211088455	-0.0424253483524
-0.0287169641693	-0.00585704084396	-0.0433918147742
2.04442035714	1.58241498963	-0.464251878322
2.04425044913	1.5822932626	-0.469478095602
2.04408054111	1.58217153557	-0.474704312882
2.04391063309	1.58204980854	-0.479930530161
2.04374072508	1.58192808152	-0.485156747441
2.04357081706	1.58180635449	-0.49038296472
2.04340090904	1.58168462746	-0.495609182
2.04323100103	1.58156290044	-0.500835399279
2.04306109301	1.58144117341	-0.506061616559
2.042891185	1.58131944638	-0.511287833838
2.04272127698	1.58119771936	-0.516514051118
2.04255136896	1.58107599233	-0.521740268397
2.04238146095	1.5809542653	-0.526966485677
2.04221155293	1.58083253827	-0.532192702956
2.04204164491	1.58071081125	-0.537418920236
2.0418717369	1.58058908422	-0.542645137516
2.04170182888	1.58046735719	-0.547871354795
2.04153192087	1.58034563017	-0.553097572075
2.04136201285	1.58022390314	-0.558323789354
2.04119210483	1.58010217611	-0.563550006634
2.04102219682	1.57998044909	-0.568776223913
2.0408522888	1.57985872206	-0.574002441193
2.04068238078	1.57973699503	-0.579228658472
2.04051247277	1.579615268	-0.584454875752
2.04034256475	1.57949354098	-0.589681093031
2.04017265674	1.57937181395	-0.594907310311
2.04000274872	1.57925008692	-0.60013352759
2.0398328407	1.5791283599	-0.60535974487
2.03966293269	1.57900663287	-0.610585962149
2.03949302467	1.57888490584	-0.615812179429
2.03932311665	1.57876317882	-0.621038396709
2.03915320864	1.57864145179	-0.626264613988
2.03898330062	1.57851972476	-0.631490831268
2.0388133926	1.57839799773	-0.636717048547
2.03864348459	1.57827627071	-0.641943265827
2.03847357657	1.57815454368	-0.647169483106
2.03830366856	1.57803281665	-0.652395700386
2.03813376054	1.57791108963	-0.657621917665
2.03796385252	1.5777893626	-0.662848134945
2.03779394451	1.57766763557	-0.668074352224
2.03762403649	1.57754590855	-0.673300569504
2.03745412847	1.57742418152	-0.678526786783
2.03728422046	1.57730245449	-0.683753004063
2.03711431244	1.57718072746	-0.688979221343
2.03694440443	1.57705900044	-0.694205438622
2.03677449641	1.57693727341	-0.699431655902
2.03660458839	1.57681554638	-0.704657873181
2.03643468038	1.57669381936	-0.709884090461
2.03626477236	1.57657209233	-0.71511030774
2.03609486434	1.5764503653	-0.72033652502
2.03592495633	1.57632863828	-0.725562742299
2.03575504831	1.57620691125	-0.730788959579
2.03558514029	1.57608518422	-0.736015176858
2.03541523228	1.57596345719	-0.741241394138
2.03524532426	1.57584173017	-0.746467611417
2.03507541625	1.57572000314	-0.751693828697
2.03490550823	1.57559827611	-0.756920045977
2.03473560021	1.57547654909	-0.762146263256
2.0345656922	1.57535482206	-0.767372480536
2.03439578418	1.57523309503	-0.772598697815
2.03422587616	1.57511136801	-0.777824915095
2.03405596815	1.57498964098	-0.783051132374
2.03388606013	1.57486791395	-0.788277349654
2.03371615212	1.57474618692	-0.793503566933
2.0335462441	1.5746244599	-0.798729784213
2.03337633608	1.57450273287	-0.803956001492
2.03320642807	1.57438100584	-0.809182218772
2.03303652005	1.57425927882	-0.814408436051
2.03286661203	1.57413755179	-0.819634653331
2.03269670402	1.57401582476	-0.82486087061
2.07822601252	1.60018713909	0.481693449277
2.07805610451	1.60006541207	0.476467231997
2.07788619649	1.59994368504	0.471241014718
2.07771628847	1.59982195801	0.466014797438
2.07754638046	1.59970023098	0.460788580159
2.07737647244	1.59957850396	0.455562362879
2.07720656443	1.59945677693	0.4503361456
2.07703665641	1.5993350499	0.44510992832
2.07686674839	1.59921332288	0.43988371104
2.07669684038	1.59909159585	0.434657493761
2.07652693236	1.59896986882	0.429431276481
2.07635702434	1.5988481418	0.424205059202
2.07618711633	1.59872641477	0.418978841922
2.07601720831	1.59860468774	0.413752624643
2.0758473003	1.59848296071	0.408526407363
2.07567739228	1.59836123369	0.403300190084
2.07550748426	1.59823950666	0.398073972804
2.07533757625	1.59811777963	0.392847755525
2.07516766823	1.59799605261	0.387621538245
2.07499776021	1.59787432558	0.382395320966
2.0748278522	1.59775259855	0.377169103686
2.07465794418	1.59763087153	0.371942886407
2.07448803616	1.5975091445	0.366716669127
2.07431812815	1.59738741747	0.361490451847
2.07414822013	1.59726569044	0.356264234568
2.07397831212	1.59714396342	0.351038017288
2.0738084041	1.59702223639	0.345811800009
2.07363849608	1.59690050936	0.340585582729
2.07346858807	1.59677878234	0.33535936545
2.07329868005	1.59665705531	0.33013314817
2.07312877203	1.59653532828	0.324906930891
2.07295886402	1.59641360126	0.319680713611
2.072788956	1.59629187423	0.314454496332
2.07261904799	1.5961701472	0.309228279052
2.07244913997	1.59604842017	0.304002061773
2.07227923195	1.59592669315	0.298775844493
2.07210932394	1.59580496612	0.293549627213
2.07193941592	1.59568323909	0.288323409934
2.0717695079	1.59556151207	0.283097192654
2.07159959989	1.59543978504	0.277870975375
2.07142969187	1.59531805801	0.272644758095
2.07125978386	1.59519633099	0.267418540816
2.07108987584	1.59507460396	0.262192323536
2.07091996782	1.59495287693	0.256966106257
2.07075005981	1.5948311499	0.251739888977
2.07058015179	1.59470942288	0.246513671698
2.07041024377	1.59458769585	0.241287454418
2.07024033576	1.59446596882	0.236061237139
2.07007042774	1.5943442418	0.230835019859
-0.0103860888859	0.00717463926776	0.0435151140848
-0.012004826354	0.00594073830321	0.0426924721245
-0.0128251824731	0.00531591613985	0.0419431890936
-0.0136454253202	0.00469117512785	0.0411973902076
-0.0144655548953	0.00406651526719	0.0404550754665
-0.0152855711983	0.00344193655789	0.0397162448701
-0.0153075459685	0.00342619319573	0.0390403207687
-0.0161273923635	0.00280173621346	0.0383067163896
-0.0161493104976	0.00278603342697	0.0376325343606
-0.0161712286317	0.00277033064049	0.0369583523315
-0.0169908484827	0.00214603596092	0.0362317162422
-0.0170127099808	0.00213037375011	0.0355592762855
-0.0170345714789	0.0021147115393	0.0348868363289
-0.0178539647859	0.00149057916243	0.0341671685293
-0.017875769648	0.0014749575273	0.0334964706451
-0.0178975745101	0.00145933589217	0.0328257727609
-0.0179193793722	0.00144371425704	0.0321550748767
-0.0187384894992	0.00081978475855	0.0314441174392
-0.0187602377253	0.000804203699095	0.0307751616274
-0.0187819859514	0.000788622639639	0.0301062058156
-0.0188037341775	0.000773041580184	0.0294372500038
-0.0196225611244	0.000149314960071	0.0287350029285
-0.0196442527145	0.000133774476291	0.0280677891891
-0.0196659443046	0.000118233992511	0.0274005754498
-0.0196876358947	0.000102693508732	0.0267333617104
-0.0197093274847	8.71530249522e-05	0.0260661479711
-0.0205278146157	-0.000536330141107	0.0253743533303
-0.0205494495697	-0.000551830049211	0.0247088816633
-0.0205710845238	-0.000567329957315	0.0240434099964
-0.0205927194779	-0.000582829865419	0.0233779383295
-0.0214109234288	-0.0012061101531	0.0226948540508
-0.0214325017468	-0.00122156948553	0.0220311244563
-0.0214540800649	-0.00123702881796	0.0213673948618
-0.0222720574718	-0.00186014680294	0.0206912788728
-0.0222935791538	-0.00187556555969	0.0200292913508
-0.0223151008359	-0.00189098431644	0.0193673038287
-0.022336622518	-0.00190640307319	0.0187053163066
-0.0231543167448	-0.00252931817979	0.0180379106798
-0.0231757817909	-0.00254469636087	0.0173776652301
-0.0231972468369	-0.00256007454195	0.0167174197805
-0.0240147145198	-0.00318282734585	0.0160569824434
-0.0240361229298	-0.00319816495125	0.0153984790662
-0.0240575313399	-0.00321350255665	0.0147399756889
-0.0240789397499	-0.00322884016205	0.0140814723117
-0.0248961242527	-0.00385139008757	0.0134297453367
-0.0249174760268	-0.00386668711729	0.0127729840319
-0.0249388278008	-0.00388198414702	0.0121162227271
-0.0257557857596	-0.00450437176984	0.0114714640418
-0.0257770808976	-0.00451962822389	0.0108164448095
-0.0257983760357	-0.00453488467794	0.0101614255771
-0.0258196711737	-0.00455014113199	0.00950640634474
-0.0266363459525	-0.00517232587642	0.00887035802159
-0.0266575844545	-0.0051875417548	0.00821708086165
-0.0266788229565	-0.00520275763317	0.00756380370171
-0.0274952711913	-0.00582478007491	0.00693472366826
-0.0275164530573	-0.00583995537761	0.00628318858075
-0.0275376349233	-0.00585513068031	0.00563165349323
-0.0275588167894	-0.005870305983	0.00498011840572
-0.0283749818441	-0.00649212554636	0.00435974873441
-0.0283961070741	-0.00650726027338	0.00370995571932
-0.0284172323041	-0.00652239500041	0.00306016270423
-0.0292331708148	-0.00714405226106	0.00244676132262
-0.0292542394088	-0.00715914641241	0.00179871037996
-0.0292753080028	-0.00717424056376	0.0011506594373
-0.0300910199695	-0.00779573552171	0.000544226345399
-0.0301120319275	-0.00781078909738	-0.000102082524837
-0.0301330438855	-0.00782584267305	-0.000748391395073
-0.0309485293082	-0.0084471753283	-0.00134785619727
-0.0309694846302	-0.0084621883283	-0.00199242299508
-0.0309904399522	-0.00847720132829	-0.00263698979289
-0.0318056988308	-0.00909837168084	-0.00322948630537
-0.0318265975168	-0.00911334410516	-0.00387231103076
-0.0318474962028	-0.00912831652948	-0.00451513575614
-0.0326625285374	-0.00974932457932	-0.00510066397892
-0.0326833705874	-0.00976425642797	-0.00574174663188
-0.0327042126374	-0.00977918827661	-0.00638282928483
-0.0335190184279	-0.0104000340238	-0.00696138921791
-0.0335398038419	-0.0104149252967	-0.00760072979844
-0.0335605892559	-0.0104298165697	-0.00824007037897
-0.0335813746699	-0.0104447078427	-0.0088794109595
-0.0343958972805	-0.0110653507114	-0.00944926053044
-0.0344166260585	-0.0110802014087	-0.0100868590385
-0.0344373548364	-0.011095052106	-0.0107244575466
-0.0344580836144	-0.0111099028033	-0.0113620560548
-0.0344788123924	-0.0111247535006	-0.0119996545629
-0.0352929951869	-0.0117451529153	-0.0125590516992
-0.0353136673289	-0.0117599630369	-0.0131949081349
-0.0353343394709	-0.0117747731585	-0.0138307645706
-0.0353550116129	-0.0117895832802	-0.0144666210063
-0.0353756837549	-0.0118043934018	-0.0151024774419
-0.0353963558969	-0.0118192035234	-0.0157383338776
-0.0354170280388	-0.011834013645	-0.0163741903133
-0.0354377001808	-0.0118488237666	-0.017010046749
-0.0362513732513	-0.0124688580003	-0.0175537652335
-0.0362719887573	-0.0124836275462	-0.0181878795968
-0.0362926042632	-0.0124983970921	-0.01882199396
-0.0363132197692	-0.0125131666381	-0.0194561083233
-0.0363338352752	-0.012527936184	-0.0200902226865
-0.0363544507812	-0.01254270573	-0.0207243370498
-0.0363750662871	-0.0125574752759	-0.021358451413
-0.0363956817931	-0.0125722448219	-0.0219925657763
-0.0364162972991	-0.0125870143678	-0.0226266801395
-0.0364369128051	-0.0126017839137	-0.0232607945028
-0.0364575283111	-0.0126165534597	-0.023894908866
-0.0356857658846	-0.012026545226	-0.0246403239771
-0.0357064380266	-0.0120413553477	-0.0252761804128
-0.0357271101686	-0.0120561654693	-0.0259120368485
-0.0357477823106	-0.0120709755909	-0.0265478932841
-0.0357684544526	-0.0120857857125	-0.0271837497198
-0.0357891265945	-0.0121005958341	-0.0278196061555
-0.0358097987365	-0.0121154059557	-0.0284554625912
-0.0358304708785	-0.0121302160774	-0.0290913190268
-0.0358511430205	-0.012145026199	-0.0297271754625
-0.0358718151625	-0.0121598363206	-0.0303630318982
-0.0351006757321	-0.0115702744194	-0.031127609806
-0.0351214045101	-0.0115851251167	-0.0317652083141
-0.0351421332881	-0.011599975814	-0.0324028068222
-0.0351628620661	-0.0116148265113	-0.0330404053303
-0.035183590844	-0.0116296772086	-0.0336780038384
-0.0344127912297	-0.0110403587614	-0.0344530341807
-0.0344335766437	-0.0110552500344	-0.0350923747612
-0.0344543620577	-0.0110701413074	-0.0357317153418
-0.0336837889874	-0.0104809851629	-0.0365137139738
-0.0337046310374	-0.0104959170116	-0.0371547966267
-0.0337254730874	-0.0105108488602	-0.0377958792797
-0.0329551265611	-0.00992185501846	-0.0385848462014
-0.0329760252471	-0.00993682744278	-0.0392276709268
-0.0322058486288	-0.00934795532806	-0.0400218640658
-0.0314357852825	-0.00875916436469	-0.0408195413497
-0.0306658352082	-0.00817045455268	-0.0416207027784
-0.029895998406	-0.00758182589202	-0.042425348352
-0.0283354261155	-0.00638959614637	-0.0433918147738
2.04747266157	1.57815454721	-0.464251878319
2.04730275356	1.57803282018	-0.469478095599
2.04713284554	1.57791109315	-0.474704312878
2.04696293752	1.57778936613	-0.479930530158
2.04679302951	1.5776676391	-0.485156747437
2.04662312149	1.57754591207	-0.490382964717
2.04645321347	1.57742418504	-0.495609181996
2.04628330546	1.57730245802	-0.500835399276
2.04611339744	1.57718073099	-0.506061616556
2.04594348943	1.57705900396	-0.511287833835
2.04577358141	1.57693727694	-0.516514051115
2.04560367339	1.57681554991	-0.521740268394
2.04543376538	1.57669382288	-0.526966485674
2.04526385736	1.57657209586	-0.532192702953
2.04509394934	1.57645036883	-0.537418920233
2.04492404133	1.5763286418	-0.542645137512
2.04475413331	1.57620691477	-0.547871354792
2.0445842253	1.57608518775	-0.553097572071
2.04441431728	1.57596346072	-0.558323789351
2.04424440926	1.57584173369	-0.56355000663
2.04407450125	1.57572000667	-0.56877622391
2.04390459323	1.57559827964	-0.57400244119
2.04373468521	1.57547655261	-0.579228658469
2.0435647772	1.57535482559	-0.584454875749
2.04339486918	1.57523309856	-0.589681093028
2.04322496117	1.57511137153	-0.594907310308
2.04305505315	1.5749896445	-0.600133527587
2.04288514513	1.57486791748	-0.605359744867
2.04271523712	1.57474619045	-0.610585962146
2.0425453291	1.57462446342	-0.615812179426
2.04237542108	1.5745027364	-0.621038396705
2.04220551307	1.57438100937	-0.626264613985
2.04203560505	1.57425928234	-0.631490831264
2.04186569703	1.57413755532	-0.636717048544
2.04169578902	1.57401582829	-0.641943265824
2.041525881	1.57389410126	-0.647169483103
2.04135597299	1.57377237423	-0.652395700383
2.04118606497	1.57365064721	-0.657621917662
2.04101615695	1.57352892018	-0.662848134942
2.04084624894	1.57340719315	-0.668074352221
2.04067634092	1.57328546613	-0.673300569501
2.0405064329	1.5731637391	-0.67852678678
2.04033652489	1.57304201207	-0.68375300406
2.04016661687	1.57292028505	-0.688979221339
2.03999670886	1.57279855802	-0.694205438619
2.03982680084	1.57267683099	-0.699431655898
2.03965689282	1.57255510396	-0.704657873178
2.03948698481	1.57243337694	-0.709884090457
2.03931707679	1.57231164991	-0.715110307737
2.03914716877	1.57218992288	-0.720336525017
2.03897726076	1.57206819586	-0.725562742296
2.03880735274	1.57194646883	-0.730788959576
2.03863744473	1.5718247418	-0.736015176855
2.03846753671	1.57170301478	-0.741241394135
2.03829762869	1.57158128775	-0.746467611414
2.03812772068	1.57145956072	-0.751693828694
2.03795781266	1.57133783369	-0.756920045973
2.03778790464	1.57121610667	-0.762146263253
2.03761799663	1.57109437964	-0.767372480532
2.03744808861	1.57097265261	-0.772598697812
2.03727818059	1.57085092559	-0.777824915091
2.03710827258	1.57072919856	-0.783051132371
2.03693836456	1.57060747153	-0.788277349651
2.03676845655	1.57048574451	-0.79350356693
2.03659854853	1.57036401748	-0.79872978421
2.03642864051	1.57024229045	-0.803956001489
2.0362587325	1.57012056342	-0.809182218769
2.03608882448	1.5699988364	-0.814408436048
2.03591891646	1.56987710937	-0.819634653328
2.03574900845	1.56975538234	-0.824860870607
2.08127831695	1.59592669667	0.48169344928
2.08110840894	1.59580496965	0.476467232
2.08093850092	1.59568324262	0.471241014721
2.0807685929	1.59556151559	0.466014797441
2.08059868489	1.59543978856	0.460788580162
2.08042877687	1.59531806154	0.455562362882
2.08025886886	1.59519633451	0.450336145603
2.08008896084	1.59507460748	0.445109928323
2.07991905282	1.59495288046	0.439883711044
2.07974914481	1.59483115343	0.434657493764
2.07957923679	1.5947094264	0.429431276485
2.07940932877	1.59458769938	0.424205059205
2.07923942076	1.59446597235	0.418978841926
2.07906951274	1.59434424532	0.413752624646
2.07889960473	1.5942225183	0.408526407366
2.07872969671	1.59410079127	0.403300190087
2.07855978869	1.59397906424	0.398073972807
2.07838988068	1.59385733721	0.392847755528
2.07821997266	1.59373561019	0.387621538248
2.07805006464	1.59361388316	0.382395320969
2.07788015663	1.59349215613	0.377169103689
2.07771024861	1.59337042911	0.37194288641
2.0775403406	1.59324870208	0.36671666913
2.07737043258	1.59312697505	0.361490451851
2.07720052456	1.59300524803	0.356264234571
2.07703061655	1.592883521	0.351038017292
2.07686070853	1.59276179397	0.345811800012
2.07669080051	1.59264006694	0.340585582733
2.0765208925	1.59251833992	0.335359365453
2.07635098448	1.59239661289	0.330133148173
2.07618107646	1.59227488586	0.324906930894
2.07601116845	1.59215315884	0.319680713614
2.07584126043	1.59203143181	0.314454496335
2.07567135242	1.59190970478	0.309228279055
2.0755014444	1.59178797776	0.304002061776
2.07533153638	1.59166625073	0.298775844496
